0.052047 0.275623 0.232634 0.443434 -0.815790 0.371286 
0.050561 0.274187 0.230274 0.429492 -0.881750 0.195072 
0.059545 0.312942 0.192575 0.350179 0.210644 0.912691 
0.053817 0.272903 0.219324 0.662111 -0.346393 0.664546 
0.054726 0.296336 0.224260 0.847745 0.403966 0.343715 
0.058317 0.313142 0.193561 0.761718 0.102021 0.639826 
0.055831 0.273037 0.217513 0.389059 -0.596045 0.702399 
0.053861 0.303583 0.218686 0.861677 0.344764 0.372358 
0.054048 0.312439 0.204851 0.955361 0.234435 0.179791 
0.054215 0.300075 0.221644 0.847841 0.384707 0.364920 
0.061340 0.275544 0.217095 0.806037 -0.515586 0.290646 
0.059309 0.272944 0.216108 0.430206 -0.808951 0.400650 
0.055504 0.281995 0.234781 0.729657 -0.103481 0.675938 
0.056408 0.284962 0.233445 0.796394 0.199717 0.570850 
0.055696 0.278498 0.232776 0.664199 -0.565988 0.488362 
0.052895 0.276827 0.233678 0.503888 -0.685208 0.525915 
0.061283 0.312664 0.192531 0.184966 -0.048717 0.981537 
0.070845 0.313603 0.184512 0.783533 -0.247996 0.569714 
0.054561 0.279834 0.234851 0.630294 -0.380589 0.676670 
0.051558 0.277750 0.235902 0.454516 -0.578697 0.677145 
0.064177 0.313454 0.189533 0.594171 -0.214502 0.775210 
0.060566 0.312740 0.192536 0.040946 0.136272 0.989825 
0.059200 0.279983 0.226745 0.875358 -0.298630 0.380222 
0.053523 0.311524 0.209675 0.899526 0.379356 0.216661 
0.060968 0.278271 0.221801 0.896284 -0.296711 0.329602 
0.062138 0.312761 0.192225 0.405650 -0.079767 0.910541 
0.062673 0.312938 0.191851 0.682566 -0.095275 0.724587 
0.055730 0.292230 0.227211 0.825973 0.471309 0.309252 
0.066698 0.313496 0.189245 0.425444 -0.222653 0.877168 
0.049362 0.272602 0.225463 0.547562 -0.800978 0.242097 
0.057794 0.279407 0.229567 0.826931 -0.428370 0.364259 
0.056661 0.278919 0.231374 0.756258 -0.550254 0.353971 
0.049583 0.272095 0.223307 0.616616 -0.649597 0.444757 
0.056409 0.312960 0.196650 0.898360 0.095344 0.428787 
0.053668 0.309344 0.213569 0.863308 0.410656 0.293361 
0.053748 0.306641 0.216634 0.857533 0.356465 0.370905 
0.049706 0.273382 0.227860 0.497457 -0.850739 0.169645 
0.056517 0.288532 0.230886 0.808103 0.413577 0.419433 
0.051759 0.272584 0.221282 0.708057 -0.390351 0.588457 
0.053668 0.278142 0.234376 0.561567 -0.554434 0.614203 
0.075764 0.326672 0.196534 0.198275 -0.599898 0.775119 
0.075272 0.324087 0.194581 0.124801 -0.627665 0.768415 
0.069449 0.330602 0.202654 0.341848 -0.590375 0.731162 
0.051937 0.332083 0.210323 0.326952 -0.091894 0.940563 
0.057013 0.331852 0.208527 0.332736 -0.276256 0.901648 
0.074922 0.319859 0.192443 0.093000 0.506091 0.857451 
0.074739 0.317779 0.190790 0.113358 -0.963805 0.241310 
0.074684 0.321945 0.192795 0.090913 -0.770224 0.631261 
0.075068 0.318171 0.192307 0.140210 -0.810390 0.568867 
0.075229 0.318919 0.192799 0.164526 -0.098708 0.981421 
0.074208 0.321284 0.191755 0.133502 -0.723656 0.677126 
0.074254 0.321028 0.191574 0.137820 0.043009 0.989523 
0.074213 0.329404 0.199201 0.316642 -0.593893 0.739614 
0.074472 0.320645 0.191866 0.062302 0.619921 0.782187 
0.074657 0.317299 0.188965 0.139393 -0.943501 0.300626 
0.074684 0.315503 0.184344 0.150958 -0.937058 0.314856 
0.069163 0.342160 0.205273 0.417085 0.183552 0.890140 
0.095744 0.339073 0.177586 0.896362 0.207692 0.391662 
0.098165 0.333251 0.174463 0.944896 0.173560 0.277577 
0.089669 0.295978 0.181694 0.709536 0.256601 0.656288 
0.091976 0.296896 0.178689 0.741977 0.285017 0.606824 
0.066197 0.335781 0.206917 0.349362 -0.176967 0.920124 
0.073542 0.362598 0.193927 0.534568 0.314850 0.784288 
0.072751 0.411698 0.142497 0.572005 0.781485 0.249181 
0.072211 0.355078 0.198012 0.507710 0.357389 0.783903 
0.085729 0.346129 0.190197 0.731748 0.310749 0.606614 
0.074125 0.406845 0.151989 0.594162 0.732255 0.332829 
0.091854 0.344107 0.182470 0.826742 0.258683 0.499581 
0.096076 0.302556 0.170463 0.810832 0.134962 0.569506 
0.054283 0.349039 0.207718 0.213949 0.307441 0.927203 
0.097770 0.308340 0.167968 0.841054 -0.107741 0.530113 
0.062441 0.348764 0.205755 0.307302 0.330440 0.892398 
0.058842 0.421382 0.078653 0.381454 0.911798 -0.152043 
0.059923 0.327560 0.205098 0.410862 -0.588509 0.696311 
0.081063 0.297496 0.188878 0.541715 0.193680 0.817945 
0.083787 0.296896 0.186964 0.613248 0.184842 0.767959 
0.064458 0.420431 0.089512 0.430711 0.897691 -0.092943 
0.095170 0.299889 0.172875 0.810028 0.239265 0.535357 
0.076442 0.381482 0.182145 0.591442 0.501104 0.631737 
0.055397 0.321292 0.203401 0.821758 -0.340924 0.456601 
0.057074 0.324137 0.203435 0.615868 -0.556670 0.557517 
0.076301 0.388864 0.175039 0.605626 0.572489 0.552697 
0.076013 0.395584 0.167968 0.615853 0.618418 0.488144 
0.071315 0.415499 0.131558 0.538444 0.828186 0.155521 
0.065057 0.301889 0.194708 0.391777 0.384751 0.835750 
0.099690 0.326768 0.171778 0.975781 0.072527 0.206379 
0.100055 0.320145 0.170109 0.962098 -0.138738 0.234773 
0.067403 0.419901 0.103698 0.463300 0.886147 -0.009776 
0.074210 0.298852 0.192324 0.404378 0.216618 0.888569 
0.099088 0.314124 0.168362 0.898531 -0.233313 0.371763 
0.045835 0.424797 0.072303 0.237493 0.952971 -0.188265 
0.093929 0.298003 0.175675 0.779729 0.270864 0.564496 
0.079007 0.347561 0.196493 0.617760 0.331364 0.713141 
0.077783 0.298032 0.190629 0.472732 0.196756 0.858960 
0.054526 0.318162 0.202587 0.919169 -0.226582 0.322162 
0.060749 0.304463 0.196001 0.645819 0.484204 0.590308 
0.057894 0.307734 0.197549 0.816791 0.442450 0.370257 
0.075237 0.401556 0.160345 0.608470 0.678011 0.412390 
0.055820 0.310796 0.199277 0.907390 0.298875 0.295495 
0.054470 0.314700 0.201514 0.960779 0.006094 0.277248 
0.069547 0.300025 0.193906 0.340065 0.305079 0.889541 
0.075338 0.371915 0.189171 0.564954 0.370955 0.737034 
0.069385 0.418230 0.118305 0.501076 0.862677 0.068637 
0.086769 0.296448 0.184565 0.667665 0.206317 0.715302 
0.054985 0.312700 0.200574 0.944688 0.175320 0.277180 
0.063004 0.331380 0.206089 0.344010 -0.455211 0.821243 
0.071046 0.348360 0.202121 0.471952 0.345310 0.811186 
0.068769 0.247891 0.206200 0.641636 -0.242730 0.727589 
0.069643 0.245379 0.204423 0.535494 -0.348100 0.769463 
0.068327 0.238716 0.202351 0.518939 -0.114271 0.847139 
0.062974 0.254108 0.212680 0.718382 0.125898 0.684162 
0.066602 0.250809 0.208983 0.711263 -0.064372 0.699973 
0.059555 0.231143 0.210744 0.679353 -0.211739 0.702600 
0.069866 0.243144 0.203252 0.440788 -0.397357 0.804868 
0.054302 0.229869 0.214299 0.506000 -0.351182 0.787804 
0.069434 0.240876 0.202397 0.425235 -0.305666 0.851906 
0.048747 0.229474 0.216601 0.297443 -0.393091 0.870062 
0.054027 0.258765 0.219819 0.548153 0.210640 0.809419 
0.049556 0.259369 0.221968 0.281271 0.161996 0.945856 
0.058472 0.256992 0.216481 0.673333 0.228038 0.703294 
0.066588 0.236213 0.203669 0.664453 -0.025973 0.746879 
0.063795 0.233581 0.206188 0.717065 -0.089084 0.691290 
0.073985 0.313866 0.178938 0.432172 -0.090955 0.897192 
0.009828 0.317474 0.189371 -0.144963 -0.052997 0.988017 
0.074930 0.314075 0.192273 -0.034950 0.027266 0.999017 
0.073310 0.314209 0.192059 -0.230013 0.042781 0.972247 
0.071762 0.314328 0.191531 -0.416477 0.057496 0.907326 
0.070409 0.314422 0.190741 -0.471848 0.061914 0.879503 
0.074989 0.314390 0.192259 -0.027676 0.065707 0.997455 
0.073423 0.314829 0.192034 -0.216020 0.118702 0.969147 
0.071927 0.315227 0.191494 -0.396721 0.166364 0.902738 
0.070618 0.315556 0.190692 -0.450294 0.180572 0.874431 
0.075105 0.314689 0.192237 -0.013457 0.102632 0.994628 
0.073654 0.315412 0.191988 -0.187836 0.189968 0.963655 
0.072262 0.316075 0.191428 -0.355897 0.269203 0.894912 
0.071039 0.316624 0.190610 -0.406409 0.292038 0.865763 
0.075277 0.314957 0.192205 0.008545 0.137076 0.990524 
0.073992 0.315940 0.191925 -0.146549 0.253614 0.956140 
0.072753 0.316840 0.191338 -0.296551 0.361273 0.884047 
0.071658 0.317589 0.190495 -0.341606 0.391995 0.854193 
0.075499 0.315186 0.192165 0.035564 0.164527 0.985731 
0.074426 0.316388 0.191847 -0.093526 0.307968 0.946789 
0.073382 0.317492 0.191225 -0.219868 0.440035 0.870647 
0.072451 0.318412 0.190354 -0.257968 0.478091 0.839572 
0.075759 0.315367 0.192119 0.066358 0.186056 0.980296 
0.074936 0.316743 0.191758 -0.032026 0.350558 0.935993 
0.074124 0.318007 0.191094 -0.130090 0.502082 0.854980 
0.073387 0.319061 0.190189 -0.159599 0.546176 0.822326 
0.076049 0.315493 0.192069 0.101326 0.201210 0.974293 
0.075506 0.316989 0.191659 0.036592 0.380179 0.924189 
0.074951 0.318364 0.190952 -0.029947 0.545058 0.837863 
0.074430 0.319511 0.190009 -0.050634 0.593238 0.803433 
0.076360 0.315558 0.192017 0.140936 0.209532 0.967591 
0.076113 0.317118 0.191557 0.111242 0.395976 0.911498 
0.075832 0.318550 0.190801 0.077168 0.567705 0.819607 
0.075540 0.319745 0.189819 0.065598 0.617628 0.783730 
0.076675 0.315560 0.191963 0.180479 0.209970 0.960906 
0.076732 0.317122 0.191452 0.187053 0.396589 0.898737 
0.076732 0.318558 0.190650 0.186534 0.568252 0.801433 
0.076675 0.319755 0.189628 0.184568 0.618196 0.764048 
0.076986 0.315501 0.191912 0.218054 0.202678 0.954659 
0.077342 0.317005 0.191351 0.260541 0.382461 0.886477 
0.077617 0.318386 0.190502 0.293410 0.547469 0.783701 
0.077791 0.319539 0.189442 0.301402 0.595302 0.744831 
0.077280 0.315379 0.191864 0.254349 0.187784 0.948706 
0.077917 0.316768 0.191256 0.330248 0.353927 0.875027 
0.078452 0.318042 0.190365 0.393808 0.506024 0.767369 
0.078844 0.319106 0.189269 0.410626 0.550253 0.727055 
0.077545 0.315204 0.191821 0.287488 0.165658 0.943349 
0.078437 0.316422 0.191173 0.393412 0.311510 0.864979 
0.079207 0.317540 0.190244 0.484216 0.445653 0.752946 
0.079795 0.318473 0.189117 0.509067 0.484334 0.711527 
0.077770 0.314977 0.191785 0.314697 0.138303 0.939062 
0.078880 0.315979 0.191102 0.446616 0.258025 0.856713 
0.079851 0.316898 0.190143 0.561497 0.368176 0.741058 
0.080608 0.317664 0.188989 0.593268 0.399858 0.698675 
0.077950 0.314712 0.191758 0.336369 0.106048 0.935740 
0.079231 0.315459 0.191049 0.488671 0.195238 0.850343 
0.080360 0.316142 0.190065 0.622617 0.276935 0.731885 
0.081250 0.316708 0.188891 0.659341 0.300745 0.689074 
0.078074 0.314416 0.191739 0.351916 0.069011 0.933484 
0.079475 0.314878 0.191013 0.517953 0.125377 0.846171 
0.080714 0.315299 0.190013 0.664175 0.176439 0.726457 
0.081698 0.315646 0.188827 0.704915 0.191267 0.683016 
0.078139 0.314101 0.191731 0.359622 0.030704 0.932593 
0.079604 0.314261 0.190998 0.532854 0.051100 0.844663 
0.080902 0.314403 0.189992 0.686162 0.069063 0.724163 
0.081932 0.314516 0.188799 0.728663 0.074220 0.680839 
0.078142 0.313780 0.191734 0.359462 -0.010759 0.933098 
0.079611 0.313631 0.191003 0.533175 -0.026623 0.845586 
0.080912 0.313488 0.189999 0.686666 -0.042017 0.725758 
0.081948 0.313362 0.188809 0.729010 -0.045791 0.682970 
0.078086 0.313465 0.191744 0.352959 -0.048981 0.934356 
0.079498 0.313011 0.191026 0.519428 -0.101148 0.848507 
0.080747 0.312589 0.190033 0.666447 -0.149900 0.730327 
0.081737 0.312228 0.188853 0.706705 -0.163648 0.688322 
0.077968 0.313167 0.191767 0.338061 -0.084760 0.937300 
0.079267 0.312428 0.191070 0.491415 -0.170844 0.854005 
0.080411 0.311741 0.190097 0.626167 -0.250198 0.738455 
0.081316 0.311160 0.188934 0.663051 -0.273384 0.696868 
0.077796 0.312898 0.191798 0.317095 -0.117608 0.941073 
0.078928 0.311901 0.191131 0.450856 -0.233305 0.861567 
0.079920 0.310976 0.190188 0.567573 -0.341028 0.749374 
0.080696 0.310196 0.189047 0.599484 -0.371346 0.709028 
0.077574 0.312670 0.191838 0.290583 -0.144033 0.945947 
0.078495 0.311453 0.191210 0.398644 -0.286852 0.871091 
0.079292 0.310324 0.190300 0.492101 -0.418887 0.763132 
0.079904 0.309372 0.189191 0.517199 -0.456505 0.723953 
0.077314 0.312489 0.191883 0.259409 -0.166226 0.951355 
0.077985 0.311098 0.191299 0.337152 -0.329669 0.881843 
0.078550 0.309810 0.190431 0.403085 -0.480700 0.778749 
0.078968 0.308724 0.189355 0.419998 -0.524447 0.740647 
0.077024 0.312363 0.191934 0.223678 -0.181710 0.957575 
0.077415 0.310851 0.191398 0.269050 -0.359247 0.893618 
0.077723 0.309453 0.190574 0.304039 -0.523694 0.795805 
0.077925 0.308273 0.189535 0.312519 -0.571432 0.758813 
0.076715 0.312298 0.191987 0.185191 -0.190064 0.964147 
0.076810 0.310723 0.191502 0.195232 -0.374982 0.906241 
0.076843 0.309267 0.190725 0.198013 -0.546794 0.813515 
0.076816 0.308039 0.189725 0.197287 -0.596072 0.778316 
0.076399 0.312295 0.192041 0.145581 -0.190454 0.970842 
0.076190 0.310718 0.191607 0.119649 -0.376050 0.918842 
0.075944 0.309259 0.190877 0.089763 -0.548123 0.831567 
0.075681 0.308029 0.189917 0.079089 -0.597824 0.797716 
0.076089 0.312355 0.192092 0.106883 -0.183209 0.977246 
0.075580 0.310836 0.191708 0.046201 -0.362346 0.930898 
0.075059 0.309429 0.191025 -0.017547 -0.528190 0.848945 
0.074565 0.308246 0.190103 -0.037643 -0.576366 0.816324 
0.075795 0.312476 0.192141 0.071164 -0.168448 0.983138 
0.075006 0.311072 0.191803 -0.023495 -0.334322 0.942166 
0.074223 0.309773 0.191162 -0.118718 -0.487609 0.864953 
0.073513 0.308678 0.190276 -0.147195 -0.532129 0.833770 
0.075530 0.312652 0.192184 0.038147 -0.146872 0.988420 
0.074486 0.311419 0.191888 -0.087060 -0.292517 0.952289 
0.073469 0.310275 0.191284 -0.209462 -0.428342 0.879005 
0.072562 0.309312 0.190429 -0.245772 -0.467210 0.849300 
0.075305 0.312878 0.192220 0.010498 -0.119397 0.992791 
0.074042 0.311860 0.191957 -0.140740 -0.239556 0.960627 
0.072825 0.310917 0.191386 -0.287220 -0.351690 0.890965 
0.071749 0.310121 0.190558 -0.330771 -0.383715 0.862179 
0.075125 0.313143 0.192247 -0.011066 -0.088797 0.995988 
0.073692 0.312382 0.192012 -0.183261 -0.176848 0.967027 
0.072317 0.311674 0.191465 -0.349048 -0.260976 0.900032 
0.071108 0.311076 0.190656 -0.398258 -0.284965 0.871886 
0.076563 0.313930 0.192161 0.166277 0.009084 0.986037 
0.075000 0.313437 0.192266 -0.026361 -0.053550 0.998217 
0.073447 0.312962 0.192046 -0.212692 -0.108780 0.971045 
0.071962 0.312516 0.191515 -0.391787 -0.161082 0.905845 
0.070660 0.312138 0.190721 -0.445239 -0.176078 0.877929 
0.074934 0.313754 0.192275 -0.034517 -0.013587 0.999312 
0.073317 0.313578 0.192064 -0.228634 -0.034718 0.972893 
0.071774 0.313412 0.191539 -0.414733 -0.053363 0.908377 
0.070425 0.313266 0.190750 -0.470233 -0.059545 0.880531 
0.069109 0.314514 0.190084 -0.467187 0.061501 0.882017 
0.067077 0.314657 0.188943 -0.579132 0.069246 0.812288 
0.065237 0.314768 0.187313 -0.731436 0.078791 0.677343 
0.063748 0.314838 0.185351 -0.849470 0.085047 0.520738 
0.062670 0.314865 0.183131 -0.934428 0.087832 0.345152 
0.062041 0.314849 0.180741 -0.983713 0.087411 0.157060 
0.061888 0.314788 0.178270 -0.995828 0.083653 -0.036443 
0.062214 0.314687 0.175816 -0.970653 0.076675 -0.227933 
0.063008 0.314547 0.173471 -0.909107 0.066757 -0.411179 
0.064240 0.314377 0.171327 -0.813607 0.054353 -0.578869 
0.065860 0.314180 0.169464 -0.687290 0.040088 -0.725276 
0.067810 0.313966 0.167955 -0.534043 0.024018 -0.845116 
0.070012 0.313742 0.166859 -0.360423 0.007353 -0.932760 
0.069359 0.315877 0.190028 -0.445269 0.179093 0.877304 
0.067392 0.316373 0.188871 -0.554131 0.205686 0.806618 
0.065607 0.316786 0.187229 -0.702078 0.240127 0.670392 
0.064160 0.317080 0.185257 -0.816875 0.263779 0.512967 
0.063106 0.317246 0.183032 -0.899963 0.277023 0.336638 
0.062487 0.317276 0.180640 -0.948523 0.279825 0.148329 
0.062324 0.317168 0.178172 -0.961294 0.271837 -0.044935 
0.062625 0.316929 0.175724 -0.937953 0.254008 -0.236061 
0.063378 0.316566 0.173387 -0.879549 0.226527 -0.418425 
0.064554 0.316093 0.171255 -0.788218 0.190564 -0.585147 
0.066108 0.315529 0.169408 -0.667189 0.147580 -0.730123 
0.067979 0.314895 0.167917 -0.520311 0.098306 -0.848299 
0.070098 0.314215 0.166840 -0.353311 0.045966 -0.934376 
0.069866 0.317162 0.189928 -0.401338 0.289560 0.868955 
0.068030 0.317993 0.188746 -0.503236 0.334711 0.796694 
0.066358 0.318691 0.187082 -0.642075 0.392639 0.658464 
0.064994 0.319196 0.185093 -0.750336 0.432536 0.499908 
0.063992 0.319493 0.182859 -0.829542 0.455683 0.322820 
0.063389 0.319567 0.180463 -0.876965 0.461469 0.134086 
0.063209 0.319416 0.177998 -0.891039 0.450043 -0.059259 
0.063459 0.319045 0.175560 -0.871716 0.421638 -0.249664 
0.064128 0.318471 0.173241 -0.819807 0.377556 -0.430544 
0.065192 0.317713 0.171130 -0.737244 0.319237 -0.595449 
0.066609 0.316801 0.169310 -0.626900 0.248861 -0.738285 
0.068325 0.315772 0.167849 -0.492098 0.169273 -0.853924 
0.070274 0.314662 0.166805 -0.338539 0.082396 -0.937338 
0.070609 0.318322 0.189791 -0.337195 0.389129 0.857250 
0.068967 0.319454 0.188572 -0.428248 0.451221 0.782945 
0.067460 0.320408 0.186878 -0.553795 0.529834 0.642329 
0.066219 0.321105 0.184866 -0.652459 0.584791 0.481993 
0.065292 0.321518 0.182618 -0.725816 0.617188 0.303760 
0.064714 0.321632 0.180217 -0.771439 0.625944 0.114350 
0.064509 0.321441 0.177757 -0.787677 0.611060 -0.078553 
0.064683 0.320954 0.175333 -0.774432 0.573187 -0.267792 
0.065230 0.320188 0.173036 -0.732148 0.513901 -0.447064 
0.066128 0.319174 0.170957 -0.662386 0.435529 -0.609558 
0.067345 0.317949 0.169173 -0.567687 0.340644 -0.749462 
0.068832 0.316561 0.167755 -0.451191 0.232477 -0.861615 
0.070532 0.315065 0.166758 -0.317468 0.115478 -0.941211 
0.071563 0.319311 0.189620 -0.254650 0.475012 0.842328 
0.070167 0.320698 0.188356 -0.332305 0.550320 0.765977 
0.068871 0.321872 0.186624 -0.440209 0.647133 0.622443 
0.067787 0.322732 0.184585 -0.526891 0.714868 0.459729 
0.066957 0.323245 0.182319 -0.592937 0.754903 0.280263 
0.066412 0.323393 0.179912 -0.636258 0.766162 0.090394 
0.066174 0.323168 0.177459 -0.655338 0.748397 -0.102149 
0.066251 0.322580 0.175052 -0.649686 0.702648 -0.290163 
0.066641 0.321652 0.172783 -0.619649 0.630579 -0.467339 
0.067329 0.320419 0.170742 -0.566567 0.534797 -0.626893 
0.068288 0.318928 0.169005 -0.492088 0.419004 -0.763076 
0.069481 0.317236 0.167639 -0.398660 0.286870 -0.871077 
0.070864 0.315409 0.166698 -0.290085 0.143369 -0.946201 
0.072687 0.320091 0.189422 -0.156661 0.542097 0.825584 
0.071583 0.321681 0.188107 -0.219053 0.628412 0.746400 
0.070536 0.323027 0.186330 -0.306369 0.739576 0.599304 
0.069638 0.324015 0.184259 -0.378381 0.817401 0.434378 
0.068922 0.324609 0.181973 -0.435805 0.863645 0.253359 
0.068415 0.324783 0.179560 -0.476364 0.876996 0.062887 
0.068139 0.324531 0.177113 -0.498859 0.856987 -0.129277 
0.068102 0.323864 0.174726 -0.502281 0.804945 -0.315874 
0.068307 0.322807 0.172491 -0.486967 0.722712 -0.490460 
0.068745 0.321402 0.170493 -0.453486 0.613333 -0.646663 
0.069401 0.319699 0.168808 -0.402843 0.480722 -0.778861 
0.070249 0.317767 0.167504 -0.336714 0.329691 -0.882002 
0.071254 0.315680 0.166630 -0.257789 0.165984 -0.951837 
0.073941 0.320631 0.189204 -0.048124 0.588648 0.806956 
0.073163 0.322362 0.187834 -0.092142 0.682606 0.724954 
0.072393 0.323829 0.186009 -0.156962 0.803584 0.574122 
0.071701 0.324906 0.183902 -0.212791 0.888498 0.406561 
0.071111 0.325555 0.181594 -0.260220 0.939255 0.223798 
0.070648 0.325747 0.179174 -0.297497 0.954156 0.032893 
0.070328 0.325477 0.176734 -0.323855 0.932701 -0.158704 
0.070165 0.324755 0.174370 -0.337649 0.876233 -0.343815 
0.070163 0.323608 0.172169 -0.338770 0.786936 -0.515719 
0.070324 0.322083 0.170219 -0.326885 0.668130 -0.668392 
0.070642 0.320235 0.168594 -0.303239 0.523984 -0.795919 
0.071103 0.318136 0.167356 -0.268012 0.359446 -0.893850 
0.071690 0.315868 0.166554 -0.222105 0.181195 -0.958038 
0.075275 0.320913 0.188976 0.066927 0.612754 0.787435 
0.074844 0.322717 0.187547 0.042022 0.710497 0.702445 
0.074370 0.324246 0.185672 0.001954 0.836617 0.547785 
0.073897 0.325371 0.183527 -0.036492 0.925393 0.377247 
0.073443 0.326047 0.181196 -0.073346 0.978490 0.192814 
0.073025 0.326248 0.178768 -0.107557 0.994198 0.001602 
0.072660 0.325969 0.176337 -0.137444 0.972268 -0.189221 
0.072361 0.325219 0.173995 -0.162310 0.913627 -0.372747 
0.072140 0.324026 0.171832 -0.180905 0.820635 -0.542063 
0.072005 0.322437 0.169933 -0.192527 0.696905 -0.690838 
0.071961 0.320513 0.168369 -0.197236 0.546838 -0.813675 
0.072012 0.318329 0.167201 -0.194328 0.375264 -0.906319 
0.072154 0.315965 0.166475 -0.184073 0.189342 -0.964503 
0.076639 0.320924 0.188747 0.184729 0.613515 0.767772 
0.076562 0.322731 0.187257 0.178857 0.711350 0.679699 
0.076390 0.324263 0.185332 0.164048 0.837629 0.521024 
0.076141 0.325388 0.183149 0.143341 0.926571 0.347735 
0.075825 0.326065 0.180795 0.117161 0.979800 0.162067 
0.075454 0.326268 0.178359 0.086444 0.995815 -0.029652 
0.075042 0.325988 0.175935 0.052736 0.974092 -0.219917 
0.074605 0.325237 0.173617 0.016818 0.915655 -0.401612 
0.074159 0.324043 0.171492 -0.019570 0.822589 -0.568300 
0.073722 0.322451 0.169644 -0.055389 0.698686 -0.713281 
0.073311 0.320525 0.168141 -0.088744 0.548174 -0.831643 
0.072942 0.318336 0.167044 -0.119256 0.376220 -0.918823 
0.072628 0.315969 0.166395 -0.145710 0.189847 -0.970941 
0.077980 0.320664 0.188524 0.300704 0.590692 0.748772 
0.078250 0.322404 0.186977 0.313471 0.684979 0.657678 
0.078377 0.323878 0.185001 0.323039 0.806487 0.495202 
0.078348 0.324961 0.182782 0.319510 0.892076 0.319553 
0.078168 0.325612 0.180406 0.303822 0.943491 0.132351 
0.077842 0.325806 0.177962 0.276888 0.959036 -0.059863 
0.077384 0.325535 0.175546 0.239464 0.938332 -0.249381 
0.076811 0.324810 0.173250 0.193059 0.882180 -0.429518 
0.076145 0.323658 0.171162 0.139223 0.792668 -0.593544 
0.075411 0.322124 0.169362 0.080040 0.673254 -0.735066 
0.074639 0.320267 0.167921 0.017962 0.528097 -0.848994 
0.073856 0.318159 0.166892 -0.045148 0.362421 -0.930921 
0.073094 0.315879 0.166317 -0.106798 0.182410 -0.977405 
0.079247 0.320143 0.188316 0.409134 0.545881 0.731179 
0.079847 0.321748 0.186715 0.439883 0.632736 0.637298 
0.080253 0.323107 0.184694 0.472558 0.744651 0.471365 
0.080432 0.324104 0.182441 0.485611 0.823432 0.293499 
0.080381 0.324703 0.180043 0.480288 0.870819 0.104870 
0.080099 0.324878 0.177592 0.456710 0.885278 -0.087746 
0.079597 0.324626 0.175183 0.415931 0.866258 -0.276765 
0.078895 0.323953 0.172908 0.359418 0.814554 -0.455325 
0.078021 0.322887 0.170854 0.289105 0.732075 -0.616835 
0.077007 0.321469 0.169101 0.207875 0.621700 -0.755167 
0.075891 0.319753 0.167715 0.118424 0.487567 -0.865017 
0.074719 0.317804 0.166751 0.024515 0.334143 -0.942203 
0.073534 0.315698 0.166245 -0.070217 0.167699 -0.983334 
0.080390 0.319383 0.188132 0.506734 0.480583 0.715724 
0.081287 0.320790 0.186483 0.553763 0.556605 0.619304 
0.081946 0.321979 0.184421 0.607202 0.654647 0.450270 
0.082314 0.322852 0.182137 0.635056 0.723628 0.270308 
0.082378 0.323372 0.179721 0.638919 0.765035 0.080653 
0.082135 0.323522 0.177264 0.618569 0.777685 -0.112154 
0.081593 0.323295 0.174861 0.574813 0.761029 -0.300706 
0.080776 0.322700 0.172605 0.509436 0.715640 -0.477844 
0.079713 0.321760 0.170581 0.424592 0.643045 -0.637350 
0.078447 0.320510 0.168869 0.323417 0.545901 -0.772912 
0.077023 0.318999 0.167532 0.209659 0.427819 -0.879212 
0.075498 0.317285 0.166625 0.087220 0.292917 -0.952151 
0.073931 0.315434 0.166181 -0.037777 0.146206 -0.988533 
0.081367 0.318410 0.187978 0.590173 0.397178 0.702813 
0.082517 0.319564 0.186290 0.650832 0.459630 0.604283 
0.083392 0.320539 0.184194 0.721865 0.539908 0.432908 
0.083921 0.321250 0.181884 0.762267 0.596471 0.251340 
0.084083 0.321673 0.179452 0.773878 0.630414 0.060749 
0.083873 0.321789 0.176990 0.756438 0.640575 -0.132160 
0.083299 0.321595 0.174592 0.710371 0.626687 -0.320369 
0.082383 0.321099 0.172352 0.637482 0.589072 -0.496599 
0.081159 0.320319 0.170353 0.540298 0.528964 -0.654427 
0.079676 0.319285 0.168675 0.422192 0.448709 -0.787664 
0.077989 0.318037 0.167380 0.287687 0.351089 -0.891051 
0.076164 0.316622 0.166520 0.141531 0.239440 -0.960540 
0.074270 0.315095 0.166128 -0.010121 0.118541 -0.992898 
0.082139 0.317263 0.187861 0.655821 0.298663 0.693325 
0.083490 0.318119 0.186142 0.727301 0.345544 0.592987 
0.084535 0.318839 0.184019 0.812144 0.405126 0.419875 
0.085191 0.319363 0.181691 0.862480 0.447022 0.237277 
0.085432 0.319668 0.179246 0.880447 0.471917 0.045903 
0.085248 0.319746 0.176781 0.865287 0.479160 -0.147255 
0.084648 0.319591 0.174387 0.817504 0.468260 -0.335292 
0.083652 0.319211 0.172158 0.738800 0.439674 -0.510747 
0.082301 0.318620 0.170179 0.631727 0.394480 -0.667313 
0.080648 0.317839 0.168527 0.500342 0.333902 -0.798854 
0.078753 0.316901 0.167264 0.349300 0.260468 -0.900081 
0.076690 0.315839 0.166440 0.184249 0.176590 -0.966886 
0.074539 0.314697 0.166087 0.011953 0.086290 -0.996198 
0.082676 0.315986 0.187784 0.701302 0.189947 0.687092 
0.084167 0.316510 0.186045 0.780176 0.218914 0.586005 
0.085331 0.316947 0.183906 0.874691 0.255603 0.411804 
0.086076 0.317260 0.181565 0.932146 0.280989 0.228362 
0.086371 0.317437 0.179112 0.954626 0.295553 0.036569 
0.086206 0.317470 0.176644 0.941245 0.299170 -0.156703 
0.085587 0.317360 0.174253 0.892205 0.291860 -0.344656 
0.084537 0.317109 0.172032 0.809433 0.273334 -0.519718 
0.083098 0.316728 0.170065 0.695625 0.244322 -0.675583 
0.081324 0.316231 0.168431 0.554761 0.205837 -0.806146 
0.079284 0.315636 0.167188 0.392229 0.159495 -0.905935 
0.077055 0.314969 0.166387 0.213733 0.107031 -0.971011 
0.074725 0.314253 0.166061 0.027252 0.050034 -0.998376 
0.082960 0.314628 0.187752 0.724604 0.074655 0.685110 
0.084525 0.314798 0.186005 0.807716 0.084650 0.583463 
0.085752 0.314935 0.183858 0.907451 0.096876 0.408836 
0.086543 0.315024 0.181512 0.968775 0.104531 0.224830 
0.086865 0.315063 0.179055 0.993591 0.108177 0.032793 
0.086708 0.315051 0.176586 0.981158 0.107996 -0.160203 
0.086080 0.314986 0.174195 0.931718 0.103858 -0.348015 
0.085002 0.314873 0.171977 0.846787 0.096179 -0.523165 
0.083516 0.314716 0.170017 0.729241 0.084670 -0.678998 
0.081679 0.314519 0.168389 0.583476 0.069560 -0.809146 
0.079563 0.314293 0.167155 0.414898 0.051992 -0.908381 
0.077249 0.314043 0.166365 0.229524 0.032313 -0.972767 
0.074823 0.313781 0.166049 0.035275 0.011690 -0.999309 
0.082978 0.313241 0.187765 0.725264 -0.044656 0.687021 
0.084546 0.313052 0.186021 0.808976 -0.053933 0.585363 
0.085779 0.312882 0.183877 0.909180 -0.066697 0.411027 
0.086571 0.312742 0.181531 0.970863 -0.076537 0.227085 
0.086894 0.312640 0.179077 0.995880 -0.083493 0.035370 
0.086738 0.312579 0.176607 0.983603 -0.087435 -0.157735 
0.086108 0.312563 0.174216 0.934242 -0.087966 -0.345621 
0.085029 0.312591 0.171997 0.849463 -0.085119 -0.520737 
0.083541 0.312661 0.170034 0.731523 -0.078962 -0.677229 
0.081700 0.312772 0.168404 0.585258 -0.069882 -0.807830 
0.079580 0.312920 0.167168 0.416302 -0.058073 -0.907370 
0.077260 0.313097 0.166373 0.230482 -0.043734 -0.972093 
0.074829 0.313299 0.166053 0.035843 -0.027961 -0.998966 
0.082726 0.311878 0.187819 0.702879 -0.162358 0.692532 
0.084231 0.311336 0.186092 0.783333 -0.190493 0.591694 
0.085407 0.310862 0.183959 0.879154 -0.227695 0.418620 
0.086160 0.310499 0.181625 0.937888 -0.254672 0.235602 
0.086458 0.310259 0.179175 0.961217 -0.272263 0.043985 
0.086292 0.310153 0.176707 0.948443 -0.279756 -0.148972 
0.085672 0.310183 0.174315 0.899883 -0.276708 -0.337111 
0.084618 0.310348 0.172091 0.816852 -0.263531 -0.513131 
0.083170 0.310643 0.170117 0.702139 -0.240037 -0.670360 
0.081385 0.311056 0.168475 0.560132 -0.206993 -0.802126 
0.079332 0.311571 0.167223 0.396360 -0.166331 -0.902902 
0.077090 0.312168 0.166411 0.216504 -0.119003 -0.969002 
0.074742 0.312826 0.166073 0.028592 -0.066832 -0.997355 
0.082217 0.310592 0.187916 0.659605 -0.270851 0.701114 
0.083590 0.309716 0.186214 0.732618 -0.317570 0.602014 
0.084654 0.308957 0.184105 0.819234 -0.378351 0.430936 
0.085323 0.308383 0.181787 0.871487 -0.422222 0.249478 
0.085572 0.308013 0.179348 0.890948 -0.450291 0.058731 
0.085391 0.307862 0.176883 0.876908 -0.461487 -0.134398 
0.084787 0.307935 0.174488 0.829454 -0.455575 -0.323198 
0.083784 0.308232 0.172253 0.750408 -0.432195 -0.500095 
0.082420 0.308738 0.170264 0.642215 -0.392268 -0.658548 
0.080747 0.309436 0.168599 0.508963 -0.336766 -0.792178 
0.078831 0.310299 0.167322 0.355841 -0.268372 -0.895184 
0.076744 0.311292 0.166480 0.188241 -0.189984 -0.963572 
0.074566 0.312379 0.166107 0.014088 -0.103508 -0.994529 
0.081474 0.309433 0.188054 0.596326 -0.368554 0.713136 
0.082652 0.308255 0.186387 0.658481 -0.432567 0.615864 
0.083551 0.307241 0.184308 0.731574 -0.514386 0.447445 
0.084098 0.306474 0.182013 0.774113 -0.573553 0.267929 
0.084271 0.305988 0.179588 0.787561 -0.611253 0.078217 
0.084065 0.305796 0.177128 0.771368 -0.625958 -0.114751 
0.083487 0.305910 0.174728 0.725754 -0.617176 -0.303931 
0.082560 0.306324 0.172479 0.652518 -0.584637 -0.482100 
0.081318 0.307021 0.170468 0.553739 -0.529776 -0.642425 
0.079811 0.307975 0.168773 0.433546 -0.454220 -0.778281 
0.078095 0.309151 0.167458 0.296268 -0.360754 -0.884354 
0.076236 0.310502 0.166573 0.147388 -0.253146 -0.956135 
0.074308 0.311975 0.166155 -0.007149 -0.136579 -0.990603 
0.080520 0.308444 0.188224 0.514722 -0.453795 0.727415 
0.081451 0.307010 0.186601 0.563477 -0.530896 0.632964 
0.082140 0.305776 0.184561 0.619371 -0.630561 0.467731 
0.082529 0.304848 0.182294 0.649444 -0.702838 0.290243 
0.082606 0.304261 0.179886 0.655135 -0.748583 0.102088 
0.082368 0.304035 0.177433 0.636220 -0.766165 -0.090638 
0.081822 0.304183 0.175026 0.592888 -0.754874 -0.280444 
0.080991 0.304696 0.172761 0.526871 -0.714784 -0.459882 
0.079907 0.305557 0.170722 0.440404 -0.647018 -0.622425 
0.078611 0.306730 0.168988 0.336744 -0.554222 -0.761211 
0.077153 0.308172 0.167627 0.219932 -0.439835 -0.870732 
0.075588 0.309827 0.166690 0.094490 -0.307910 -0.946712 
0.073976 0.311633 0.166214 -0.034754 -0.164591 -0.985749 
0.079395 0.307665 0.188422 0.418084 -0.520518 0.744491 
0.080034 0.306028 0.186850 0.451337 -0.608596 0.652614 
0.080473 0.304622 0.184852 0.486604 -0.722658 0.490898 
0.080678 0.303564 0.182619 0.502025 -0.805060 0.315989 
0.080641 0.302897 0.180231 0.498669 -0.857103 0.129242 
0.080365 0.302646 0.177785 0.476228 -0.877062 -0.063002 
0.079857 0.302820 0.175372 0.435673 -0.863676 -0.253482 
0.079141 0.303413 0.173086 0.378342 -0.817406 -0.434402 
0.078241 0.304402 0.171014 0.306430 -0.739522 -0.599340 
0.077194 0.305748 0.169237 0.222504 -0.632963 -0.741518 
0.076039 0.307400 0.167822 0.129732 -0.501895 -0.855144 
0.074820 0.309296 0.166824 0.031695 -0.351106 -0.935799 
0.073586 0.311361 0.166283 -0.067050 -0.187095 -0.980051 
0.072381 0.313517 0.166216 -0.165934 -0.010591 -0.986080 
0.078141 0.307125 0.188638 0.311463 -0.566984 0.762575 
0.078455 0.305347 0.187122 0.326123 -0.662789 0.674058 
0.078616 0.303820 0.185174 0.338691 -0.786733 0.516082 
0.078614 0.302674 0.182976 0.337492 -0.876232 0.343973 
0.078451 0.301951 0.180610 0.323778 -0.932729 0.158693 
0.078131 0.301682 0.178171 0.297476 -0.954162 -0.032916 
0.077667 0.301874 0.175750 0.260224 -0.939228 -0.223909 
0.077077 0.302523 0.173443 0.212762 -0.888518 -0.406532 
0.076385 0.303600 0.171335 0.157095 -0.803633 -0.574016 
0.075616 0.305066 0.169510 0.094828 -0.687584 -0.719886 
0.074798 0.306865 0.168037 0.029329 -0.544954 -0.837953 
0.073966 0.308928 0.166972 -0.037500 -0.380774 -0.923908 
0.073150 0.311173 0.166359 -0.102466 -0.202392 -0.973929 
0.076807 0.306842 0.188867 0.197287 -0.591675 0.781664 
0.076773 0.304993 0.187409 0.192992 -0.691434 0.696185 
0.076639 0.303403 0.185511 0.180831 -0.820446 0.542373 
0.076417 0.302210 0.183350 0.162285 -0.913574 0.372889 
0.076119 0.301460 0.181008 0.137482 -0.972253 0.189270 
0.075754 0.301181 0.178576 0.107679 -0.994184 -0.001632 
0.075336 0.301382 0.176148 0.073396 -0.978474 -0.192879 
0.074881 0.302058 0.173818 0.036547 -0.925380 -0.377274 
0.074409 0.303183 0.171672 -0.001871 -0.836672 -0.547701 
0.073934 0.304712 0.169797 -0.040576 -0.715756 -0.697171 
0.073478 0.306587 0.168262 -0.077278 -0.567368 -0.819830 
0.073056 0.308734 0.167127 -0.111431 -0.396346 -0.911314 
0.072686 0.311076 0.166437 -0.141023 -0.210342 -0.967403 
0.075443 0.306831 0.189097 0.079649 -0.593392 0.800963 
0.075055 0.304978 0.187699 0.056727 -0.693309 0.718404 
0.074619 0.303387 0.185851 0.019634 -0.822413 0.568552 
0.074174 0.302191 0.183728 -0.016757 -0.915568 0.401815 
0.073736 0.301441 0.181409 -0.052599 -0.974080 0.220002 
0.073324 0.301160 0.178986 -0.086453 -0.995815 0.029646 
0.072953 0.301364 0.176550 -0.117172 -0.979790 -0.162121 
0.072638 0.302040 0.174196 -0.143243 -0.926593 -0.347715 
0.072388 0.303166 0.172013 -0.164087 -0.837656 -0.520969 
0.072217 0.304698 0.170087 -0.178394 -0.716628 -0.674255 
0.072128 0.306575 0.168489 -0.186430 -0.567954 -0.801668 
0.072127 0.308728 0.167284 -0.186860 -0.396791 -0.898688 
0.072212 0.311072 0.166517 -0.180558 -0.210822 -0.960704 
0.074102 0.307091 0.189320 -0.035790 -0.571737 0.819656 
0.073368 0.305305 0.187980 -0.077608 -0.668030 0.740076 
0.072633 0.303771 0.186182 -0.138986 -0.792555 0.593751 
0.071968 0.302619 0.184095 -0.192920 -0.882119 0.429707 
0.071394 0.301893 0.181799 -0.239394 -0.938330 0.249455 
0.070936 0.301623 0.179383 -0.277098 -0.958980 0.059787 
0.070611 0.301817 0.176939 -0.303949 -0.943453 -0.132330 
0.070432 0.302467 0.174563 -0.319594 -0.892039 -0.319573 
0.070403 0.303551 0.172343 -0.323200 -0.806466 -0.495130 
0.070528 0.305025 0.170367 -0.314189 -0.690048 -0.652011 
0.070801 0.306833 0.168711 -0.293260 -0.547076 -0.784032 
0.071212 0.308904 0.167436 -0.260847 -0.382552 -0.886348 
0.071746 0.311161 0.166595 -0.218217 -0.203682 -0.954408 
0.072837 0.307611 0.189528 -0.144158 -0.528020 0.836907 
0.071771 0.305961 0.188242 -0.204257 -0.617002 0.759992 
0.070758 0.304542 0.186490 -0.288914 -0.731982 0.617034 
0.069884 0.303476 0.184437 -0.359271 -0.814512 0.455516 
0.069182 0.302803 0.182162 -0.415851 -0.866305 0.276737 
0.068681 0.302550 0.179753 -0.456466 -0.885421 0.087569 
0.068398 0.302726 0.177303 -0.480302 -0.870807 -0.104904 
0.068347 0.303324 0.174904 -0.485710 -0.823361 -0.293535 
0.068527 0.304322 0.172651 -0.472704 -0.744605 -0.471290 
0.068933 0.305680 0.170629 -0.441821 -0.637324 -0.631358 
0.069549 0.307348 0.168915 -0.393805 -0.505554 -0.767681 
0.070350 0.309259 0.167578 -0.330837 -0.353769 -0.874868 
0.071306 0.311343 0.166667 -0.254249 -0.188890 -0.948514 
0.071693 0.308371 0.189713 -0.242382 -0.463555 0.852272 
0.070332 0.306919 0.188475 -0.318941 -0.541861 0.777601 
0.069064 0.305669 0.186763 -0.424161 -0.643190 0.637491 
0.068002 0.304729 0.184741 -0.509309 -0.715702 0.477886 
0.067185 0.304134 0.182484 -0.574909 -0.760917 0.300807 
0.066644 0.303906 0.180081 -0.618648 -0.777644 0.112003 
0.066402 0.304056 0.177624 -0.638977 -0.764958 -0.080922 
0.066466 0.304577 0.175208 -0.635165 -0.723501 -0.270390 
0.066834 0.305450 0.172923 -0.607274 -0.654538 -0.450331 
0.067493 0.306639 0.170862 -0.556470 -0.560510 -0.613327 
0.068417 0.308101 0.169098 -0.484401 -0.445096 -0.753157 
0.069571 0.309778 0.167704 -0.393497 -0.312171 -0.864702 
0.070909 0.311607 0.166731 -0.287866 -0.166526 -0.943081 
0.070717 0.309345 0.189868 -0.327001 -0.380778 0.864915 
0.069102 0.308144 0.188669 -0.416979 -0.445473 0.792264 
0.067618 0.307110 0.186992 -0.539997 -0.529041 0.654614 
0.066396 0.306330 0.184994 -0.637507 -0.589245 0.496361 
0.065480 0.305833 0.182753 -0.710428 -0.626679 0.320258 
0.064906 0.305640 0.180356 -0.756529 -0.640472 0.132136 
0.064697 0.305756 0.177894 -0.773983 -0.630267 -0.060940 
0.064860 0.306179 0.175462 -0.762360 -0.596317 -0.251422 
0.065388 0.306890 0.173152 -0.721960 -0.539746 -0.432953 
0.066264 0.307864 0.171055 -0.654171 -0.462729 -0.598283 
0.067451 0.309064 0.169251 -0.561270 -0.368227 -0.741205 
0.068905 0.310441 0.167809 -0.446896 -0.258763 -0.856344 
0.070570 0.311946 0.166785 -0.315265 -0.138957 -0.938775 
0.069945 0.310491 0.189985 -0.393654 -0.282618 0.874736 
0.068130 0.309589 0.188818 -0.494666 -0.331615 0.803329 
0.066476 0.308809 0.187166 -0.631636 -0.394347 0.667477 
0.065126 0.308218 0.185189 -0.738792 -0.439814 0.510637 
0.064131 0.307838 0.182959 -0.817528 -0.468395 0.335044 
0.063531 0.307683 0.180565 -0.865343 -0.479120 0.147058 
0.063349 0.307761 0.178099 -0.880508 -0.471772 -0.046218 
0.063590 0.308066 0.175655 -0.862632 -0.446685 -0.237357 
0.064246 0.308589 0.173326 -0.812313 -0.404639 -0.420018 
0.065292 0.309310 0.171204 -0.731253 -0.347682 -0.586844 
0.066687 0.310198 0.169367 -0.622285 -0.277053 -0.732123 
0.068379 0.311224 0.167889 -0.488976 -0.195902 -0.850015 
0.070302 0.312343 0.166826 -0.336736 -0.107212 -0.935476 
0.069408 0.311769 0.190062 -0.440164 -0.173817 0.880934 
0.067454 0.311198 0.188915 -0.548792 -0.204462 0.810569 
0.065680 0.310701 0.187280 -0.695396 -0.244605 0.675717 
0.064241 0.310320 0.185315 -0.809390 -0.273558 0.519667 
0.063193 0.310068 0.183093 -0.892342 -0.291952 0.344223 
0.062574 0.309959 0.180702 -0.941302 -0.299117 0.156460 
0.062410 0.309991 0.178234 -0.954647 -0.295441 -0.036923 
0.062706 0.310168 0.175782 -0.932218 -0.280459 -0.228721 
0.063451 0.310481 0.173440 -0.874855 -0.254926 -0.411875 
0.064616 0.310918 0.171300 -0.784578 -0.219654 -0.579819 
0.066157 0.311463 0.169443 -0.664468 -0.176015 -0.726292 
0.068013 0.312094 0.167941 -0.518324 -0.126112 -0.845834 
0.070116 0.312788 0.166852 -0.351996 -0.070675 -0.933329 
0.069126 0.313127 0.190096 -0.465202 -0.058003 0.883302 
0.067098 0.312910 0.188957 -0.577299 -0.069272 0.813589 
0.065262 0.312713 0.187330 -0.729082 -0.084881 0.679142 
0.063776 0.312555 0.185370 -0.846847 -0.096435 0.523021 
0.062699 0.312442 0.183152 -0.931833 -0.104176 0.347612 
0.062072 0.312378 0.180762 -0.981189 -0.108218 0.159866 
0.061916 0.312365 0.178292 -0.993600 -0.107847 -0.033579 
0.062241 0.312404 0.175836 -0.968711 -0.103756 -0.225465 
0.063033 0.312493 0.173489 -0.907511 -0.095715 -0.408978 
0.064261 0.312630 0.171342 -0.812291 -0.084004 -0.577171 
0.065877 0.312807 0.169476 -0.686358 -0.069414 -0.723943 
0.067820 0.313020 0.167964 -0.533629 -0.051343 -0.844159 
0.070017 0.313259 0.166864 -0.360078 -0.032446 -0.932358 
0.010741 0.317417 0.202740 -0.008620 0.012570 0.999884 
0.009112 0.317447 0.202577 -0.201742 0.014882 0.979326 
0.007547 0.317474 0.202101 -0.388802 0.017568 0.921154 
0.006166 0.317495 0.201359 -0.443539 0.018895 0.896056 
0.010778 0.317734 0.202731 -0.003709 0.050515 0.998716 
0.009185 0.318070 0.202558 -0.192583 0.090537 0.977095 
0.007653 0.318377 0.202074 -0.376090 0.127299 0.917797 
0.006303 0.318634 0.201324 -0.430396 0.138571 0.891940 
0.010876 0.318038 0.202709 0.007792 0.086896 0.996187 
0.009378 0.318665 0.202516 -0.169703 0.162327 0.972035 
0.007932 0.319241 0.202013 -0.342368 0.232068 0.910455 
0.006653 0.319723 0.201248 -0.394238 0.252244 0.883713 
0.011030 0.318317 0.202678 0.026682 0.121359 0.992250 
0.009680 0.319211 0.202454 -0.133329 0.228329 0.964411 
0.008371 0.320035 0.201921 -0.290219 0.327150 0.899303 
0.007207 0.320723 0.201132 -0.337065 0.355457 0.871801 
0.011235 0.318558 0.202636 0.052001 0.151395 0.987105 
0.010081 0.319687 0.202371 -0.085128 0.285895 0.954472 
0.008953 0.320726 0.201802 -0.220201 0.409935 0.885135 
0.007940 0.321596 0.200981 -0.260977 0.445689 0.856302 
0.011481 0.318757 0.202587 0.082372 0.175988 0.980940 
0.010564 0.320074 0.202274 -0.027055 0.332514 0.942710 
0.009656 0.321288 0.201660 -0.135506 0.477556 0.868089 
0.008827 0.322305 0.200802 -0.168684 0.519427 0.837700 
0.011761 0.318901 0.202530 0.117256 0.193892 0.973990 
0.011114 0.320359 0.202164 0.039610 0.367096 0.929339 
0.010452 0.321700 0.201500 -0.040252 0.526567 0.849180 
0.009832 0.322825 0.200600 -0.064690 0.573013 0.816989 
0.012064 0.318988 0.202470 0.153854 0.204377 0.966726 
0.011705 0.320528 0.202046 0.110907 0.387197 0.915302 
0.011313 0.321947 0.201330 0.063043 0.555844 0.828893 
0.010916 0.323136 0.200385 0.047401 0.604716 0.795029 
0.012376 0.319013 0.202409 0.191783 0.207415 0.959270 
0.012320 0.320577 0.201925 0.184179 0.392770 0.901005 
0.012204 0.322018 0.201154 0.169728 0.564080 0.808088 
0.012040 0.323226 0.200164 0.164185 0.613685 0.772292 
0.012688 0.318976 0.202348 0.230033 0.202764 0.951826 
0.012931 0.320504 0.201806 0.258363 0.383577 0.886633 
0.013091 0.321911 0.200981 0.276603 0.551063 0.787287 
0.013158 0.323090 0.199944 0.280418 0.599566 0.749591 
0.012987 0.318877 0.202290 0.267584 0.190287 0.944558 
0.013515 0.320309 0.201693 0.329402 0.359856 0.872925 
0.013940 0.321630 0.200816 0.379336 0.516748 0.767512 
0.014228 0.322736 0.199738 0.391668 0.562231 0.728349 
0.013260 0.318720 0.202238 0.301423 0.170786 0.938070 
0.014052 0.320003 0.201590 0.394080 0.322806 0.860522 
0.014718 0.321185 0.200666 0.472855 0.463287 0.749515 
0.015209 0.322175 0.199548 0.493346 0.503652 0.709186 
0.013497 0.318512 0.202193 0.329518 0.146094 0.932778 
0.014518 0.319596 0.201501 0.450445 0.273575 0.849857 
0.015396 0.320595 0.200538 0.554388 0.392059 0.734128 
0.016065 0.321430 0.199387 0.582592 0.425756 0.692329 
0.013692 0.318262 0.202157 0.353514 0.115587 0.928261 
0.014898 0.319105 0.201430 0.496800 0.213972 0.841074 
0.015948 0.319880 0.200435 0.621357 0.305726 0.721420 
0.016759 0.320529 0.199256 0.655529 0.331625 0.678459 
0.013833 0.317978 0.202131 0.372068 0.078648 0.924868 
0.015176 0.318546 0.201379 0.530644 0.146405 0.834855 
0.016351 0.319070 0.200361 0.670033 0.208317 0.712503 
0.017269 0.319507 0.199164 0.708831 0.225804 0.668260 
0.013916 0.317670 0.202117 0.382290 0.039880 0.923181 
0.015342 0.317944 0.201351 0.550903 0.072628 0.831403 
0.016593 0.318195 0.200321 0.699690 0.101805 0.707156 
0.017572 0.318405 0.199112 0.740740 0.110640 0.662619 
0.013941 0.317352 0.202114 0.385554 0.000960 0.922685 
0.015389 0.317319 0.201346 0.556876 -0.003827 0.830587 
0.016660 0.317288 0.200313 0.708024 -0.008375 0.706139 
0.017658 0.317261 0.199103 0.750020 -0.008842 0.661356 
0.013903 0.317035 0.202123 0.380684 -0.037786 0.923933 
0.015314 0.316697 0.201365 0.548380 -0.077651 0.832616 
0.016551 0.316385 0.200340 0.695398 -0.116205 0.709167 
0.017524 0.316121 0.199136 0.736371 -0.127547 0.664447 
0.013808 0.316730 0.202143 0.370497 -0.072432 0.926005 
0.015125 0.316100 0.201406 0.526105 -0.149162 0.837236 
0.016275 0.315519 0.200400 0.662820 -0.220101 0.715699 
0.017173 0.315031 0.199213 0.700666 -0.241390 0.671415 
0.013655 0.316451 0.202176 0.350969 -0.107647 0.930179 
0.014823 0.315554 0.201470 0.489071 -0.216759 0.844881 
0.015836 0.314726 0.200492 0.610196 -0.316364 0.726344 
0.016619 0.314031 0.199329 0.643710 -0.345310 0.682934 
0.013450 0.316209 0.202218 0.325147 -0.138984 0.935395 
0.014422 0.315078 0.201551 0.440984 -0.273999 0.854668 
0.015255 0.314034 0.200611 0.540509 -0.399455 0.740463 
0.015886 0.313158 0.199479 0.567552 -0.436164 0.698317 
0.013203 0.316010 0.202268 0.295277 -0.162979 0.941408 
0.013938 0.314690 0.201649 0.382926 -0.320564 0.866376 
0.014552 0.313471 0.200753 0.456124 -0.467431 0.757271 
0.014999 0.312449 0.199658 0.475350 -0.510245 0.716724 
0.012924 0.315866 0.202324 0.260350 -0.180999 0.948397 
0.013388 0.314406 0.201759 0.316424 -0.355014 0.879682 
0.013755 0.313059 0.200912 0.360742 -0.516760 0.776418 
0.013994 0.311929 0.199859 0.371590 -0.564303 0.737213 
0.012621 0.315779 0.202384 0.224099 -0.191442 0.955578 
0.012797 0.314235 0.201876 0.244741 -0.375341 0.893991 
0.012895 0.312812 0.201084 0.256876 -0.546302 0.797226 
0.012910 0.311618 0.200075 0.258911 -0.596706 0.759544 
0.012308 0.315754 0.202446 0.185620 -0.194357 0.963209 
0.012183 0.314187 0.201997 0.170594 -0.381109 0.908655 
0.012004 0.312741 0.201259 0.148881 -0.554675 0.818639 
0.011787 0.311528 0.200296 0.141212 -0.605552 0.783177 
0.011997 0.315792 0.202506 0.146222 -0.189579 0.970917 
0.011572 0.314261 0.202117 0.096020 -0.371798 0.923335 
0.011117 0.312849 0.201433 0.041913 -0.541535 0.839633 
0.010668 0.311664 0.200514 0.024518 -0.590961 0.806328 
0.011699 0.315891 0.202564 0.108791 -0.176969 0.978185 
0.010988 0.314455 0.202229 0.024854 -0.348074 0.937138 
0.010268 0.313131 0.201596 -0.060613 -0.506916 0.859862 
0.009599 0.312019 0.200722 -0.087076 -0.553615 0.828208 
0.011426 0.316047 0.202616 0.075252 -0.157818 0.984597 
0.010452 0.314761 0.202333 -0.039427 -0.310779 0.949664 
0.009490 0.313575 0.201746 -0.154002 -0.453279 0.877965 
0.008617 0.312580 0.200911 -0.188469 -0.494832 0.848305 
0.011188 0.316255 0.202662 0.046673 -0.132094 0.990138 
0.009985 0.315169 0.202421 -0.096134 -0.260870 0.960576 
0.008813 0.314166 0.201875 -0.236065 -0.381016 0.893924 
0.007762 0.313324 0.201075 -0.278013 -0.415904 0.865871 
0.010994 0.316505 0.202698 0.022547 -0.101481 0.994582 
0.009606 0.315660 0.202492 -0.142145 -0.201471 0.969126 
0.008262 0.314880 0.201978 -0.302773 -0.294502 0.906420 
0.007068 0.314226 0.201204 -0.350839 -0.320968 0.879711 
0.012375 0.317384 0.202585 0.192528 0.006867 0.981267 
0.010853 0.316790 0.202724 0.005442 -0.066818 0.997750 
0.009328 0.316219 0.202543 -0.175567 -0.134539 0.975231 
0.007858 0.315691 0.202052 -0.351272 -0.196868 0.915342 
0.006559 0.315248 0.201297 -0.403558 -0.214871 0.889366 
0.010768 0.317098 0.202739 -0.004917 -0.027111 0.999620 
0.009162 0.316821 0.202572 -0.195655 -0.061182 0.978762 
0.007618 0.316566 0.202093 -0.380560 -0.091549 0.920213 
0.006256 0.316352 0.201348 -0.434673 -0.100540 0.894959 
0.004845 0.317516 0.200753 -0.438421 0.019689 0.898554 
0.002773 0.317548 0.199684 -0.553681 0.021795 0.832444 
0.000881 0.317574 0.198127 -0.710615 0.023948 0.703174 
-0.000669 0.317592 0.196227 -0.834309 0.024725 0.550742 
-0.001816 0.317600 0.194060 -0.925503 0.024690 0.377934 
-0.002518 0.317598 0.191712 -0.981295 0.023682 0.191049 
-0.002748 0.317587 0.189270 -0.999756 0.021844 -0.003180 
-0.002498 0.317567 0.186830 -0.980238 0.019203 -0.196887 
-0.001776 0.317538 0.184484 -0.923330 0.015915 -0.383678 
-0.000608 0.317501 0.182324 -0.831457 0.011872 -0.555462 
0.000956 0.317459 0.180431 -0.708095 0.007449 -0.706078 
0.002861 0.317412 0.178879 -0.557480 0.002944 -0.830185 
0.005032 0.317364 0.177728 -0.385579 -0.001908 -0.922673 
0.005009 0.318886 0.200709 -0.424842 0.138635 0.894589 
0.002980 0.319272 0.199630 -0.537251 0.160008 0.828106 
0.001124 0.319602 0.198061 -0.690917 0.187047 0.698318 
-0.000400 0.319845 0.196157 -0.812260 0.205361 0.545949 
-0.001531 0.319991 0.193986 -0.902438 0.215706 0.372931 
-0.002228 0.320037 0.191637 -0.957983 0.218274 0.186080 
-0.002464 0.319978 0.189197 -0.977114 0.212569 -0.007928 
-0.002230 0.319818 0.186762 -0.959009 0.199138 -0.201609 
-0.001534 0.319565 0.184423 -0.904426 0.178033 -0.387709 
-0.000404 0.319225 0.182272 -0.815515 0.149924 -0.558980 
0.001118 0.318814 0.180390 -0.695572 0.116423 -0.708960 
0.002972 0.318346 0.178850 -0.548809 0.078277 -0.832275 
0.005089 0.317839 0.177713 -0.381129 0.037214 -0.923773 
0.005432 0.320196 0.200616 -0.389238 0.250501 0.886421 
0.003512 0.320924 0.199512 -0.495272 0.290212 0.818830 
0.001751 0.321544 0.197923 -0.640958 0.341091 0.687626 
0.000296 0.322001 0.196003 -0.756461 0.376803 0.534590 
-0.000794 0.322282 0.193825 -0.843312 0.397974 0.361167 
-0.001477 0.322370 0.191473 -0.898024 0.404089 0.173968 
-0.001728 0.322269 0.189036 -0.918377 0.395206 -0.019871 
-0.001536 0.321976 0.186610 -0.903870 0.371146 -0.212766 
-0.000910 0.321506 0.184286 -0.854962 0.332954 -0.397721 
0.000127 0.320876 0.182156 -0.773526 0.281990 -0.567573 
0.001535 0.320110 0.180299 -0.662561 0.220265 -0.715889 
0.003260 0.319239 0.178787 -0.525800 0.150373 -0.837211 
0.005235 0.318295 0.177681 -0.369385 0.074061 -0.926320 
